ply
format ascii 1.0
element vertex 1276
property float x
property float y
property float z
property uchar red
property uchar green
property uchar blue
end_header
-0.116902 0.345502 -0.015126 0 255 0
-0.123108 -0.112058 0.838543 76 153 0
-0.114659 -0.294717 0.588366 0 127 127
-0.244996 -0.738070 -0.121729 76 0 153
0.245438 -0.249014 -0.262963 76 0 153
0.074229 0.072074 -0.455054 76 0 153
0.219320 -0.245783 -0.348288 76 0 153
-0.212439 -0.195266 -0.365058 76 0 153
0.009894 -0.303915 0.715097 76 153 0
0.251284 0.069510 -0.241535 76 0 153
0.008824 -0.329122 0.635890 0 127 127
-0.130472 -0.528517 -0.441881 76 0 153
-0.034845 -0.086206 0.954080 153 0 76
0.202651 -0.717013 -0.058090 76 0 153
-0.100478 0.354185 -0.412058 0 255 0
0.188097 -0.646109 -0.379021 76 0 153
-0.051730 0.018048 0.137723 0 127 127
-0.018222 0.011583 0.402653 0 127 127
-0.241841 0.328017 -0.080549 0 255 0
-0.127083 0.536237 0.024998 0 255 0
0.177870 -0.089015 -0.389930 76 0 153
-0.141927 0.649675 -0.110624 0 255 0
-0.154528 -0.232573 -0.000732 76 0 153
-0.131714 -0.159636 0.673601 76 153 0
-0.001744 0.529033 0.261163 0 255 0
0.064510 0.652193 -0.152475 0 255 0
0.231145 -0.624326 -0.106850 76 0 153
-0.150648 -0.025547 0.281001 0 127 127
0.144870 0.650046 -0.209870 0 255 0
-0.073811 -0.170777 0.033693 76 0 153
-0.018159 0.060687 -0.472697 76 0 153
0.245252 0.462402 -0.286661 0 255 0
0.099601 -0.006574 0.471769 0 127 127
0.249639 0.331209 -0.270480 0 255 0
0.184320 0.582264 -0.391984 0 255 0
-0.188792 -0.058226 0.627516 0 127 127
0.088066 0.327364 -0.000355 0 255 0
-0.057731 -0.057496 0.766129 76 153 0
0.248153 -0.081505 -0.253035 76 0 153
0.032842 0.009170 0.631339 0 127 127
-0.162928 0.093197 -0.009532 76 0 153
0.047712 -0.092776 -0.461957 76 0 153
-0.205639 -0.120809 -0.371950 76 0 153
0.085135 0.331352 -0.423636 0 255 0
-0.250331 -0.609224 -0.280937 76 0 153
-0.262573 0.127630 -0.236152 76 0 153
-0.196290 -0.103836 0.102157 0 127 127
-0.076708 0.544809 0.533826 0 255 0
0.026641 -0.328990 0.484349 0 127 127
-0.138701 -0.275702 0.527993 0 127 127
-0.201107 -0.676681 -0.375801 76 0 153
0.101902 -0.360689 -0.447108 76 0 153
-0.186906 0.387424 -0.121529 0 255 0
0.075391 0.018647 -0.454677 76 0 153
0.020328 -0.333703 0.247338 0 127 127
-0.245460 -0.420781 -0.123849 76 0 153
-0.000177 0.543702 -0.481191 0 255 0
-0.002753 0.597444 0.096644 0 255 0
0.044157 0.591061 0.192638 0 255 0
0.160345 -0.005425 0.008804 0 127 127
0.053302 -0.325334 0.353174 0 127 127
-0.198465 -0.247166 -0.028092 0 127 127
-0.244495 0.063264 -0.303541 76 0 153
0.175633 -0.194529 0.595106 0 127 127
0.242273 0.394351 -0.123304 0 255 0
0.128610 -0.282903 0.138778 0 127 127
0.055460 0.647942 0.018473 0 255 0
0.057326 0.540451 0.405137 0 255 0
-0.101385 0.111590 -0.450459 76 0 153
0.024715 0.531557 0.554157 0 255 0
0.040466 -0.337834 0.882732 76 153 0
0.140388 0.382414 0.014341 0 255 0
-0.104976 0.651139 -0.202308 0 255 0
0.148480 -0.531326 -0.418778 76 0 153
-0.206372 0.358682 -0.379562 0 255 0
-0.059972 -0.094414 -0.592884 153 0 76
0.009326 -0.215621 0.048394 76 0 153
0.021547 -0.138791 -0.516390 153 0 76
-0.142910 0.291451 0.021064 0 255 0
-0.116875 -0.316771 0.022334 76 0 153
-0.016593 0.637323 0.053680 0 255 0
0.024796 0.531575 0.094805 0 255 0
-0.052972 -0.276825 -0.511353 153 0 76
-0.188916 -0.179841 0.403456 0 127 127
-0.243855 -0.302260 -0.305483 76 0 153
0.139661 0.215213 -0.428512 76 0 153
0.143709 -0.249227 0.653174 0 127 127
-0.193518 -0.116602 0.627053 0 127 127
-0.100964 0.648948 -0.398710 0 255 0
-0.228594 0.138324 -0.075254 76 0 153
0.043432 -0.005868 0.038998 76 0 153
-0.235196 -0.721501 -0.337284 76 0 153
-0.082071 0.001573 0.492604 0 127 127
0.058686 -0.702422 -0.458269 76 0 153
0.181492 0.346028 -0.394344 0 255 0
0.184353 -0.066311 0.088350 0 127 127
0.246875 0.125778 -0.166475 76 0 153
-0.072889 0.599326 -0.464240 0 255 0
0.189727 -0.404945 -0.045548 76 0 153
0.117658 0.283183 0.003848 0 255 0
0.263965 0.450237 -0.209100 0 255 0
-0.181226 0.648165 -0.334973 0 255 0
-0.270030 0.297666 -0.229758 0 255 0
0.175866 -0.051613 0.434807 0 127 127
-0.085845 0.057984 0.063778 0 127 127
-0.239043 0.273399 -0.153660 0 255 0
0.085136 -0.002235 0.414077 0 127 127
-0.114760 -0.008240 0.419380 0 127 127
0.046236 0.190315 -0.462699 76 0 153
0.141830 -0.716690 -0.425201 76 0 153
-0.209676 0.068904 -0.056250 76 0 153
0.047132 -0.311715 0.038381 76 0 153
0.063028 0.542812 0.164358 0 255 0
-0.120410 -0.118484 0.712463 76 153 0
-0.013089 -0.702070 -0.473121 76 0 153
0.039733 -0.191200 -0.586819 153 0 76
0.021992 -0.098365 -0.643655 153 0 76
0.000997 0.529295 0.310992 0 255 0
-0.185610 -0.535164 -0.391471 76 0 153
-0.148617 -0.685536 0.005734 76 0 153
-0.231630 0.647614 -0.323708 0 255 0
-0.121205 -0.010677 0.610100 0 127 127
-0.006378 0.007192 -0.475788 76 0 153
-0.195800 -0.087468 0.363588 0 127 127
-0.179388 -0.217430 0.263256 0 127 127
0.124520 -0.016937 0.323113 0 127 127
-0.171570 -0.037119 0.441524 0 127 127
0.102669 0.177129 -0.447562 76 0 153
-0.093659 -0.343407 0.101855 0 127 127
0.166554 0.495873 -0.409904 0 255 0
0.223279 0.314890 -0.188756 0 255 0
0.104364 0.649458 -0.048225 0 255 0
-0.193576 0.078158 -0.384257 76 0 153
-0.031001 -0.688789 0.045799 76 0 153
-0.268930 0.361409 -0.189813 0 255 0
-0.184860 -0.206911 0.046324 0 127 127
-0.070237 0.541475 0.234501 0 255 0
-0.200753 0.467454 -0.385373 0 255 0
0.238488 0.449967 -0.110254 0 255 0
-0.274439 0.457692 -0.213699 0 255 0
-0.026247 0.359281 0.005675 0 255 0
-0.099903 -0.372005 -0.450264 76 0 153
0.114383 -0.012190 0.571877 0 127 127
-0.150844 -0.183108 0.002891 76 0 153
0.163630 -0.510638 -0.019321 76 0 153
0.188124 0.389410 -0.260310 0 255 0
0.051423 0.589339 0.533859 0 255 0
-0.189118 -0.055972 0.157747 0 127 127
-0.056290 0.590524 0.800146 0 255 0
0.185953 -0.108503 0.268211 0 127 127
0.232058 -0.170883 -0.110815 76 0 153
0.149765 -0.030308 0.479920 0 127 127
-0.268429 0.038358 -0.210135 76 0 153
-0.161881 -0.711130 -0.414985 76 0 153
-0.050956 0.348313 -0.429088 0 255 0
-0.208880 0.356271 -0.044203 0 255 0
0.122538 -0.566506 -0.441327 76 0 153
0.237118 -0.167745 -0.294113 76 0 153
0.245829 -0.518813 -0.261174 76 0 153
-0.264579 0.589222 -0.250528 0 255 0
-0.191432 -0.167148 0.248664 0 127 127
0.124110 -0.264209 -0.441276 76 0 153
-0.231798 -0.616402 -0.077532 76 0 153
-0.187364 -0.053433 0.025255 0 127 127
-0.028870 -0.369487 0.045979 76 0 153
-0.242624 0.038578 -0.113827 76 0 153
-0.113239 0.240994 -0.447441 76 0 153
-0.144688 0.647679 -0.420300 0 255 0
-0.063506 0.649727 -0.040574 0 255 0
0.218367 0.570218 -0.357887 0 255 0
-0.126251 0.020527 0.053708 0 127 127
0.253999 -0.106581 -0.192780 76 0 153
0.239967 -0.693152 -0.282834 76 0 153
-0.200510 -0.165418 -0.046797 0 127 127
0.023486 -0.049253 0.820521 76 153 0
-0.023517 -0.337387 0.802962 76 153 0
0.085515 -0.098830 0.891654 76 153 0
-0.039605 -0.144405 -0.615753 153 0 76
0.180135 0.307592 -0.069063 0 255 0
0.055041 -0.387099 0.036354 76 0 153
-0.257486 -0.215746 -0.168982 76 0 153
0.148008 -0.019149 0.057801 0 127 127
0.157243 -0.057226 -0.013490 76 0 153
0.132464 -0.431327 0.011748 76 0 153
-0.193648 -0.629383 -0.383318 76 0 153
0.056390 -0.512265 -0.459118 76 0 153
0.000689 -0.119520 -0.474524 76 0 153
-0.169018 0.446262 -0.005619 0 255 0
-0.089796 -0.316167 0.181538 0 127 127
0.075316 -0.402572 -0.454181 76 0 153
0.153179 0.442738 -0.423568 0 255 0
-0.000081 0.597235 0.756802 0 255 0
-0.214571 0.141765 -0.363339 76 0 153
-0.073772 -0.318038 0.498425 0 127 127
0.104637 -0.453475 -0.446262 76 0 153
0.093398 0.506769 -0.455894 0 255 0
0.055963 0.652830 -0.225778 0 255 0
0.076365 0.000683 0.232288 0 127 127
0.237489 -0.335041 -0.292522 76 0 153
0.060820 -0.054835 0.665420 76 153 0
0.158659 -0.035133 0.157372 0 127 127
-0.181095 -0.625863 -0.026818 76 0 153
-0.123595 -0.212401 0.690138 76 153 0
0.156739 -0.419734 -0.410656 76 0 153
-0.250119 0.459226 -0.305384 0 255 0
-0.157844 -0.196218 -0.419653 76 0 153
0.009865 0.271738 -0.459384 0 255 0
0.064837 0.543745 0.332778 0 255 0
0.096643 -0.306882 0.226558 0 127 127
0.071265 -0.070350 0.830669 76 153 0
0.181758 0.038008 -0.038122 76 0 153
-0.167753 0.174095 -0.410197 76 0 153
-0.021960 0.596279 0.521706 0 255 0
-0.042209 0.162870 0.041752 76 0 153
0.053864 0.046117 0.094304 0 127 127
-0.239672 0.393043 -0.345332 0 255 0
0.134002 -0.145819 0.770506 76 153 0
0.025291 0.382520 -0.414342 0 255 0
0.068361 0.545562 0.570773 0 255 0
-0.190185 0.503722 -0.027898 0 255 0
-0.099283 0.650920 -0.333745 0 255 0
-0.078329 0.429093 0.038449 0 255 0
-0.035616 0.003250 0.697078 0 127 127
0.044732 0.590927 0.453042 0 255 0
-0.005798 -0.366251 -0.440230 153 0 76
-0.187859 -0.055649 0.533314 0 127 127
0.248221 0.144936 -0.253059 76 0 153
-0.245504 -0.458707 -0.299135 76 0 153
0.180997 -0.146370 -0.037134 76 0 153
0.199014 0.433115 -0.045316 0 255 0
0.121443 -0.180029 0.680088 76 153 0
-0.238097 -0.573017 -0.096185 76 0 153
0.119676 -0.161481 -0.442590 76 0 153
-0.209970 0.305618 -0.336496 0 255 0
0.130286 -0.283551 0.013744 76 0 153
-0.252929 -0.503464 -0.151623 76 0 153
0.065061 -0.318794 0.440622 0 127 127
0.013436 -0.425686 -0.470733 153 0 76
0.193969 0.244833 -0.050586 76 0 153
0.214391 0.275153 -0.325915 0 255 0
0.118468 -0.597749 0.019617 76 0 153
-0.262883 0.397738 -0.257472 0 255 0
0.066771 -0.218461 0.033005 76 0 153
0.024262 0.564945 0.819418 0 255 0
-0.101488 0.558977 0.389559 0 255 0
-0.145208 -0.105958 0.008433 76 0 153
0.232952 -0.608872 -0.309118 76 0 153
-0.251097 0.645672 -0.280904 0 255 0
-0.265198 -0.532017 -0.225548 76 0 153
-0.024551 0.650418 -0.398558 0 255 0
-0.120298 -0.574322 -0.444551 76 0 153
-0.227859 -0.315459 -0.349491 76 0 153
-0.134163 -0.285022 0.272065 0 127 127
0.240728 -0.725181 -0.142491 76 0 153
-0.136801 0.032066 -0.440872 76 0 153
-0.266093 0.087418 -0.201475 76 0 153
-0.162592 -0.526367 -0.008436 76 0 153
-0.116278 -0.138261 0.936323 76 153 0
-0.057361 0.537574 0.710523 0 255 0
-0.101155 0.558334 0.484029 0 255 0
0.089206 0.556463 0.125756 0 255 0
-0.069128 0.340714 0.002174 0 255 0
-0.017712 -0.072917 -0.603802 153 0 76
0.007996 0.011761 0.295204 0 127 127
-0.081513 0.436049 -0.461627 0 255 0
-0.229926 0.210450 -0.348069 76 0 153
-0.141005 0.314726 -0.402640 0 255 0
-0.166929 -0.240696 0.440409 0 127 127
-0.114759 0.194137 -0.446977 76 0 153
0.103247 -0.007460 0.637456 0 127 127
0.184034 -0.478003 -0.383290 76 0 153
-0.073239 0.587708 0.073061 0 255 0
-0.068464 -0.279982 0.659531 76 153 0
0.012592 0.652755 -0.308159 0 255 0
-0.100600 0.573484 0.742710 0 255 0
-0.001776 0.012398 0.559527 0 127 127
-0.234496 -0.166052 -0.083243 76 0 153
-0.204346 -0.102539 -0.029199 0 127 127
0.002567 -0.331291 0.534769 0 127 127
0.051084 0.589420 0.598685 0 255 0
-0.068379 0.587610 0.674785 0 255 0
-0.147741 0.635300 0.013063 0 255 0
-0.043260 -0.239363 -0.465604 76 0 153
0.244194 0.024492 -0.267941 76 0 153
-0.224584 -0.384564 -0.352681 76 0 153
-0.239931 0.627943 -0.082775 0 255 0
0.153769 -0.248473 0.348424 0 127 127
0.184865 -0.582207 -0.382331 76 0 153
0.050319 0.589588 0.089456 0 255 0
-0.126347 -0.595117 0.020137 76 0 153
-0.077387 -0.587111 -0.456033 76 0 153
0.213553 -0.394610 -0.353873 76 0 153
0.022860 -0.447523 -0.422224 153 0 76
0.061698 0.542134 0.237543 0 255 0
0.130364 -0.367765 0.024339 0 127 127
0.141437 -0.025843 0.253575 0 127 127
-0.243543 -0.011774 -0.117195 76 0 153
-0.031990 0.242988 -0.469214 76 0 153
0.016794 -0.335376 0.159924 0 127 127
0.232768 -0.511944 -0.309927 76 0 153
0.182527 0.647882 -0.352322 0 255 0
-0.151325 -0.302519 0.049949 0 127 127
0.176176 -0.200665 0.277913 0 127 127
-0.075179 0.266735 -0.444913 0 255 0
-0.183976 -0.004218 -0.393756 76 0 153
-0.159776 -0.438411 -0.417424 76 0 153
-0.105846 -0.295215 0.790430 76 153 0
-0.139015 0.648659 -0.051878 0 255 0
0.248423 0.588911 -0.274176 0 255 0
-0.174932 -0.231599 0.177971 0 127 127
-0.254097 0.347300 -0.290824 0 255 0
-0.158290 -0.043610 0.691258 0 127 127
-0.006949 0.528924 0.631955 0 255 0
0.044708 -0.256067 -0.492814 153 0 76
-0.026420 0.653810 -0.254838 0 255 0
-0.246441 0.121400 -0.128174 76 0 153
-0.247134 -0.154211 -0.293426 76 0 153
0.062229 0.259943 -0.446436 0 255 0
0.130685 0.647746 -0.417730 0 255 0
-0.130780 0.597682 -0.448705 0 255 0
-0.151668 0.334907 -0.044940 0 255 0
-0.016471 0.303605 0.054286 0 255 0
0.248967 -0.565532 -0.249405 76 0 153
-0.069901 -0.433794 0.035064 76 0 153
0.006351 -0.070778 0.909882 76 153 0
-0.068208 0.385346 -0.403765 0 255 0
0.045564 0.337163 0.044754 0 255 0
-0.039058 0.481491 0.048192 0 255 0
0.261337 0.542219 -0.199350 0 255 0
-0.266481 -0.070035 -0.202732 76 0 153
-0.167716 -0.241695 0.351898 0 127 127
-0.258375 -0.263400 -0.172240 76 0 153
0.185253 -0.140598 0.188836 0 127 127
-0.176872 -0.200677 0.662493 0 127 127
-0.268546 -0.673785 -0.212878 76 0 153
-0.155992 0.362631 -0.357667 0 255 0
-0.255690 0.600758 -0.141560 0 255 0
0.223728 -0.430998 -0.079517 76 0 153
0.175193 -0.210030 0.033093 0 127 127
0.051735 -0.390740 0.092737 0 127 127
0.160675 -0.314883 -0.406849 76 0 153
0.180493 -0.152141 0.666868 0 127 127
0.247506 -0.250723 -0.168368 76 0 153
0.071102 0.582495 0.493631 0 255 0
-0.060717 0.651803 -0.108314 0 255 0
-0.035735 -0.300944 -0.467544 76 0 153
-0.101348 -0.023171 0.026134 76 0 153
0.160741 -0.233912 0.416387 0 127 127
0.116451 -0.193505 0.636274 76 153 0
0.227823 0.106164 -0.329138 76 0 153
-0.075412 -0.657220 -0.456476 76 0 153
-0.193889 -0.147034 0.139556 0 127 127
-0.196828 0.585119 -0.389301 0 255 0
-0.115537 -0.271584 0.735276 76 153 0
0.114753 -0.683887 -0.443269 76 0 153
-0.023144 0.653869 -0.186420 0 255 0
0.181136 -0.062128 0.527407 0 127 127
-0.001046 -0.335995 0.207421 0 127 127
-0.114242 -0.295900 0.494663 0 127 127
-0.242198 0.560873 -0.334316 0 255 0
0.197379 0.192167 -0.053931 76 0 153
0.140649 -0.199238 0.806244 76 153 0
0.239662 0.320365 -0.111294 0 255 0
-0.180015 0.647692 -0.383729 0 255 0
-0.114233 -0.365085 0.023101 76 0 153
0.150142 -0.225156 -0.006183 76 0 153
0.247680 -0.443291 -0.254356 76 0 153
0.119712 -0.336428 0.061379 0 127 127
0.062827 0.004369 0.495285 0 127 127
0.156632 -0.033728 0.654265 0 127 127
-0.004236 0.528794 0.482431 0 255 0
-0.250067 -0.569525 -0.140860 76 0 153
-0.060383 -0.324127 0.781167 76 153 0
0.181269 -0.693712 -0.385790 76 0 153
0.006620 -0.056934 -0.567903 153 0 76
0.134771 0.313831 -0.025882 0 255 0
0.184911 -0.108715 0.463365 0 127 127
0.031707 0.009028 0.175749 0 127 127
-0.146542 0.107321 -0.431326 76 0 153
-0.082379 0.316573 -0.432280 0 255 0
0.051383 -0.633369 -0.460311 76 0 153
0.152556 -0.252424 0.207244 0 127 127
-0.267746 0.630629 -0.186667 0 255 0
0.095208 -0.513375 0.025746 76 0 153
-0.188740 -0.387084 -0.034755 76 0 153
-0.000122 0.012397 0.444228 0 127 127
-0.121108 -0.500141 0.021424 76 0 153
0.202970 -0.615258 -0.058533 76 0 153
0.067308 0.008482 0.139739 0 127 127
-0.243808 -0.473010 -0.117618 76 0 153
0.182506 0.580568 -0.031221 0 255 0
-0.095877 -0.743165 0.028482 76 0 153
-0.036603 -0.040522 0.043504 76 0 153
0.094447 0.650863 -0.331305 0 255 0
0.173118 0.143211 -0.394967 76 0 153
0.057890 0.540613 0.454988 0 255 0
-0.254124 -0.149043 -0.156516 76 0 153
0.133544 -0.632946 -0.433589 76 0 153
-0.007714 -0.170331 0.948803 153 0 76
0.124264 -0.157062 0.935850 76 153 0
-0.148792 -0.063848 -0.428867 76 0 153
0.181074 0.052240 -0.386899 76 0 153
0.178069 -0.053629 0.192776 0 127 127
-0.112185 -0.007479 0.345526 0 127 127
-0.032114 0.196537 -0.469124 76 0 153
0.258568 0.588637 -0.189086 0 255 0
0.237728 0.228977 -0.292324 76 0 153
0.227820 0.647614 -0.157407 0 255 0
-0.231065 -0.006157 -0.346664 76 0 153
0.233454 -0.110129 -0.116100 76 0 153
-0.142764 0.371354 0.021993 0 255 0
0.052234 -0.202696 0.943096 153 0 76
-0.175596 0.387670 -0.410857 0 255 0
-0.064582 0.006888 0.338975 0 127 127
-0.159903 0.001365 -0.006394 76 0 153
0.085238 -0.313743 0.885487 76 153 0
-0.198784 0.511511 -0.387383 0 255 0
0.058348 -0.274120 0.629054 76 153 0
0.225622 0.041694 -0.087054 76 0 153
0.137223 -0.080657 -0.430588 76 0 153
0.098635 0.472619 0.030605 0 255 0
0.107362 -0.297867 0.286106 0 127 127
0.241881 -0.457912 -0.147122 76 0 153
-0.069076 -0.409878 0.071996 0 127 127
-0.233795 -0.073502 -0.343305 76 0 153
-0.016054 0.529793 0.770005 0 255 0
-0.156752 -0.618395 -0.420228 76 0 153
-0.224750 -0.691220 -0.070392 76 0 153
-0.019957 -0.244824 -0.582052 153 0 76
-0.267884 -0.345238 -0.215749 76 0 153
0.238132 0.618073 -0.312564 0 255 0
0.225059 -0.315132 -0.338938 76 0 153
0.081229 0.016591 0.028843 76 0 153
-0.122942 -0.260506 0.020639 76 0 153
0.202596 0.343646 -0.163146 0 255 0
-0.231330 -0.160652 -0.346210 76 0 153
0.058451 0.584599 0.040265 0 255 0
0.224319 0.308863 -0.242803 0 255 0
0.200808 0.385228 -0.209066 0 255 0
0.229383 -0.080214 -0.323088 76 0 153
0.049997 -0.103527 -0.571313 153 0 76
-0.030067 0.010413 0.646535 0 127 127
-0.057265 -0.347063 0.130469 0 127 127
0.253813 0.375765 -0.254602 0 255 0
-0.094157 0.651606 -0.244471 0 255 0
-0.147822 0.649553 -0.307117 0 255 0
-0.190910 -0.161885 0.479890 0 127 127
-0.147035 0.525088 -0.439383 0 255 0
-0.005290 0.012949 0.226766 0 127 127
-0.228414 0.495662 -0.066062 0 255 0
-0.086235 -0.148863 -0.454199 76 0 153
-0.034698 -0.743873 -0.467279 76 0 153
0.253206 -0.655325 -0.233474 76 0 153
0.226492 -0.644450 -0.333184 76 0 153
-0.208228 0.389429 -0.202835 0 255 0
0.224265 0.107836 -0.082072 76 0 153
0.088381 0.198130 0.026704 76 0 153
-0.067566 -0.326338 0.282194 0 127 127
0.114230 0.650655 -0.243872 0 255 0
0.142435 -0.259135 0.558047 0 127 127
0.119825 -0.231339 0.938046 153 0 76
-0.239359 0.517646 -0.345297 0 255 0
0.169942 0.371321 -0.015184 0 255 0
-0.237385 -0.267957 -0.093898 76 0 153
0.258628 0.621693 -0.236046 0 255 0
-0.029504 -0.401880 -0.454296 76 0 153
-0.270682 0.498610 -0.227827 0 255 0
-0.218791 -0.534486 -0.064626 76 0 153
-0.050788 -0.326024 0.534011 0 127 127
0.248216 0.018042 -0.171349 76 0 153
0.231888 0.141609 -0.110563 76 0 153
-0.215469 -0.426695 -0.061436 76 0 153
0.009569 -0.475193 -0.471709 76 0 153
-0.074772 -0.298202 0.926256 153 0 76
0.244353 -0.640633 -0.156125 76 0 153
-0.137747 -0.281018 0.314693 0 127 127
-0.258631 0.473589 -0.150679 0 255 0
-0.069052 -0.470712 -0.458409 76 0 153
-0.042145 0.527562 0.070181 0 255 0
0.012666 0.648192 0.021413 0 255 0
-0.037404 -0.328070 0.618455 0 127 127
0.248959 -0.561419 -0.173410 76 0 153
-0.071912 -0.093242 0.926165 76 153 0
-0.257077 -0.289798 -0.256150 76 0 153
0.133924 0.649882 -0.299823 0 255 0
0.079929 -0.000682 0.546363 0 127 127
0.063474 0.585598 0.691378 0 255 0
-0.045202 -0.227417 0.938737 153 0 76
0.071373 0.068181 0.031421 76 0 153
-0.102582 -0.308144 0.343598 0 127 127
0.225649 -0.521359 -0.086466 76 0 153
0.200349 -0.260474 -0.056347 76 0 153
0.080785 0.578544 0.410407 0 255 0
0.108517 -0.295539 0.369098 0 127 127
0.178207 -0.181635 0.518542 0 127 127
0.092635 0.570426 0.248500 0 255 0
-0.051257 -0.317973 0.730103 76 153 0
0.234320 -0.332992 -0.119058 76 0 153
0.113790 0.366080 -0.389287 0 255 0
-0.237222 -0.085813 -0.093513 76 0 153
0.242357 0.518068 -0.297197 0 255 0
-0.250747 0.269577 -0.195441 0 255 0
-0.091371 -0.738574 -0.452100 76 0 153
-0.108981 -0.302068 0.411109 0 127 127
-0.027674 0.231349 0.045563 76 0 153
-0.078695 0.545828 0.605304 0 255 0
-0.223358 0.322177 -0.164604 0 255 0
0.238814 -0.417988 -0.287476 76 0 153
-0.182278 -0.321636 -0.028373 76 0 153
-0.090691 -0.306730 0.859999 76 153 0
-0.046074 -0.059613 0.859003 76 153 0
0.134574 0.608650 0.016560 0 255 0
0.153407 0.285356 -0.392363 0 255 0
-0.126759 -0.260348 0.871371 76 153 0
-0.179471 -0.379659 -0.397801 76 0 153
0.008364 0.596574 0.336632 0 255 0
-0.089855 0.551518 0.310353 0 255 0
0.162594 -0.196333 -0.405075 76 0 153
-0.198864 0.648450 -0.136614 0 255 0
0.187433 -0.080188 0.007016 0 127 127
-0.075645 -0.282690 0.714057 76 153 0
0.232356 0.594770 -0.090791 0 255 0
-0.262049 -0.600132 -0.237217 76 0 153
-0.183123 -0.047808 0.356601 0 127 127
-0.121657 0.453636 0.027265 0 255 0
0.174475 0.079654 -0.030890 76 0 153
0.187891 -0.029065 -0.379982 76 0 153
0.199875 0.247212 -0.368337 76 0 153
-0.224357 0.324959 -0.251069 0 255 0
-0.025108 0.530663 0.155058 0 255 0
0.043133 0.350921 0.002374 0 255 0
-0.251364 -0.022583 -0.277802 76 0 153
0.185452 0.647661 -0.053794 0 255 0
0.022161 -0.309764 -0.496782 153 0 76
0.193997 0.116977 -0.050457 76 0 153
0.082608 0.260679 0.016112 0 255 0
0.054438 -0.116789 0.958244 153 0 76
-0.203081 0.312779 -0.085479 0 255 0
-0.148887 -0.021102 0.086705 0 127 127
0.022035 -0.541405 -0.398211 153 0 76
0.004591 -0.470669 0.049975 76 0 153
0.063729 0.540723 0.039160 0 255 0
0.119806 -0.240903 0.018822 76 0 153
-0.015400 -0.159229 -0.502820 153 0 76
-0.006804 0.528910 0.391956 0 255 0
0.180063 -0.176175 0.342290 0 127 127
-0.110224 -0.649768 0.024524 76 0 153
0.006595 0.650691 -0.026601 0 255 0
-0.163037 -0.130930 -0.414540 76 0 153
0.247368 -0.323298 -0.167764 76 0 153
0.004649 -0.427974 0.075052 0 127 127
0.091681 -0.284922 0.928597 153 0 76
-0.108677 0.626223 0.029329 0 255 0
0.131424 0.024776 0.012228 0 127 127
0.006895 -0.312817 0.049164 76 0 153
0.086392 -0.164328 0.027681 76 0 153
0.208732 0.379232 -0.054246 0 255 0
0.252769 -0.470493 -0.187741 76 0 153
0.182792 -0.064709 0.353100 0 127 127
-0.174292 -0.223396 0.480897 0 127 127
-0.200690 0.346305 -0.122262 0 255 0
-0.078353 -0.346369 0.032692 76 0 153
-0.094887 -0.097638 0.027956 76 0 153
0.110145 -0.116560 0.683706 76 153 0
0.242134 0.421326 -0.298619 0 255 0
0.009576 0.596478 0.609604 0 255 0
0.230784 -0.717213 -0.317079 76 0 153
0.148238 0.528523 0.003810 0 255 0
-0.205766 0.233873 -0.372258 76 0 153
0.220029 0.256766 -0.110599 0 255 0
0.051080 0.649869 -0.383669 0 255 0
0.004657 -0.208581 -0.600281 153 0 76
0.209926 0.423104 -0.366051 0 255 0
0.063648 -0.318548 0.788371 76 153 0
0.118525 -0.286178 0.479714 0 127 127
-0.194407 -0.116961 0.413606 0 127 127
-0.091005 0.016963 -0.453124 76 0 153
0.028701 0.467771 0.048521 0 255 0
-0.196162 -0.117242 0.010100 0 127 127
0.140006 -0.371750 -0.427447 76 0 153
-0.129072 0.393622 -0.448599 0 255 0
-0.157006 0.386606 -0.081397 0 255 0
-0.116578 -0.269886 -0.445920 76 0 153
-0.066062 0.588191 0.458576 0 255 0
0.132573 0.129854 0.010951 76 0 153
-0.254898 0.246100 -0.264940 76 0 153
0.133166 -0.235302 0.787781 76 153 0
0.154087 0.584076 -0.422254 0 255 0
-0.240078 0.203815 -0.104528 76 0 153
-0.255636 -0.075179 -0.162250 76 0 153
0.036119 -0.686834 0.041792 76 0 153
0.043082 -0.087056 0.039191 76 0 153
-0.080342 0.002541 0.269549 0 127 127
0.192690 -0.561636 -0.048319 76 0 153
-0.233318 0.262074 -0.298658 0 255 0
-0.194399 0.159294 -0.041084 76 0 153
0.059496 -0.323539 0.307944 0 127 127
0.123747 -0.016707 0.392617 0 127 127
0.029390 0.009400 0.586127 0 127 127
-0.163697 -0.322112 0.016025 0 127 127
-0.201198 -0.467905 -0.047114 76 0 153
0.073207 0.548039 0.633860 0 255 0
-0.028065 -0.080612 0.045841 76 0 153
0.013684 0.653610 -0.149635 0 255 0
-0.054324 0.122515 0.038555 76 0 153
0.022523 0.580244 -0.475103 0 255 0
-0.041039 -0.333821 0.856901 76 153 0
-0.144257 0.256695 -0.417735 0 255 0
-0.240976 0.433616 -0.340075 0 255 0
-0.050319 0.008178 0.201507 0 127 127
-0.267685 -0.569512 -0.206613 76 0 153
-0.184808 0.599734 -0.023794 0 255 0
-0.266086 0.434930 -0.179212 0 255 0
-0.234313 0.050515 -0.341526 76 0 153
-0.200952 -0.500206 -0.376172 76 0 153
-0.134701 -0.285526 0.149982 0 127 127
-0.018118 -0.513428 -0.429806 153 0 76
0.229932 0.183572 -0.103316 76 0 153
-0.066027 0.652260 -0.277195 0 255 0
0.006110 0.081952 0.048891 76 0 153
0.226213 -0.018227 -0.334995 76 0 153
0.087632 -0.076596 0.766746 76 153 0
-0.079849 0.546421 0.651090 0 255 0
-0.194226 -0.135330 0.277525 0 127 127
-0.059990 0.589642 0.600043 0 255 0
-0.057544 0.590216 0.352314 0 255 0
0.023896 0.595355 0.688603 0 255 0
-0.132618 0.107694 0.017595 76 0 153
0.243295 -0.599887 -0.270530 76 0 153
0.253002 -0.277338 -0.234697 76 0 153
-0.015464 -0.033680 -0.473303 76 0 153
0.209858 0.648058 -0.265111 0 255 0
-0.247630 -0.111653 -0.291625 76 0 153
0.016836 -0.544864 0.046785 76 0 153
-0.029356 -0.041054 0.662849 76 153 0
0.038748 0.592352 0.289918 0 255 0
-0.173132 -0.322717 -0.404210 76 0 153
0.009705 -0.480946 -0.396439 153 0 76
-0.177892 -0.667232 -0.023564 76 0 153
-0.027728 -0.282098 0.046178 76 0 153
-0.256660 0.314800 -0.140137 0 255 0
-0.005963 0.439590 -0.482180 0 255 0
-0.109700 -0.239938 0.657365 76 153 0
0.162506 -0.430415 -0.018295 76 0 153
0.156195 0.237495 -0.012803 76 0 153
0.033439 0.296899 0.047752 0 255 0
0.034516 -0.287461 -0.465254 76 0 153
-0.216093 0.648236 -0.249626 0 255 0
-0.060178 0.041949 -0.461415 76 0 153
-0.045443 -0.329560 0.371101 0 127 127
0.107539 -0.009286 0.205439 0 127 127
0.065087 -0.317274 0.577458 0 127 127
0.036332 -0.329681 0.389688 0 127 127
-0.268703 -0.138495 -0.210938 76 0 153
0.254480 0.153587 -0.194893 76 0 153
-0.238302 0.598836 -0.347790 0 255 0
-0.072209 -0.211432 0.034172 76 0 153
-0.206077 0.645941 -0.054433 0 255 0
0.122694 -0.140022 0.855466 76 153 0
-0.181903 -0.209644 0.308454 0 127 127
0.062679 -0.417651 0.061727 0 127 127
0.182974 0.303776 -0.027694 0 255 0
0.001197 -0.294902 -0.530801 153 0 76
0.048547 -0.240666 -0.546418 153 0 76
-0.204204 0.023855 -0.050723 76 0 153
-0.042482 0.009106 0.573797 0 127 127
-0.005639 0.118595 -0.476122 76 0 153
-0.242575 -0.640390 -0.309844 76 0 153
-0.146769 -0.441991 0.007283 76 0 153
-0.131187 -0.015145 0.195156 0 127 127
-0.082611 0.029942 0.095077 0 127 127
0.184830 -0.070523 0.281738 0 127 127
-0.029740 0.506844 -0.475758 0 255 0
-0.093273 -0.377856 0.075791 0 127 127
0.057800 0.540564 0.764812 0 255 0
-0.035032 -0.135727 0.954904 153 0 76
-0.240289 0.288057 -0.097356 0 255 0
-0.013321 -0.332638 0.454841 0 127 127
0.249656 -0.701167 -0.175842 76 0 153
0.252007 0.546209 -0.260924 0 255 0
0.083500 0.577436 0.164481 0 255 0
-0.086190 0.523088 -0.460566 0 255 0
-0.021137 -0.662741 -0.471012 76 0 153
-0.016837 -0.514619 0.049381 76 0 153
-0.265261 0.539887 -0.177195 0 255 0
0.014768 0.596072 0.254016 0 255 0
0.051150 0.652116 -0.293565 0 255 0
0.087753 -0.002933 0.315024 0 127 127
0.184348 -0.161589 0.047053 0 127 127
0.253535 0.300038 -0.166967 0 255 0
-0.112846 -0.007931 0.141606 0 127 127
0.167589 0.352192 -0.083345 0 255 0
0.243262 0.108272 -0.271522 76 0 153
0.160115 0.648528 -0.115493 0 255 0
0.005205 -0.395672 0.049719 76 0 153
0.144567 -0.182551 -0.000660 76 0 153
0.180447 -0.171496 0.418895 0 127 127
0.054901 -0.742400 -0.459235 76 0 153
0.071531 0.410964 -0.461625 0 255 0
0.030941 -0.176248 -0.505906 153 0 76
0.196676 -0.186981 -0.037302 76 0 153
0.250078 -0.357472 -0.245513 76 0 153
0.185920 -0.247339 -0.381686 76 0 153
-0.075202 -0.105832 -0.457208 76 0 153
0.248853 0.602235 -0.152803 0 255 0
0.162986 -0.235439 0.061717 0 127 127
0.030482 0.455720 -0.472848 0 255 0
0.250811 0.473330 -0.158456 0 255 0
-0.039985 -0.172403 -0.466563 76 0 153
0.136380 -0.687717 0.008146 76 0 153
0.020112 -0.318459 0.922684 153 0 76
0.027684 0.142938 -0.467612 76 0 153
0.183735 -0.123603 0.587308 0 127 127
-0.259626 -0.344662 -0.176810 76 0 153
0.124515 0.072018 0.017177 76 0 153
-0.260680 0.516116 -0.265357 0 255 0
-0.058549 -0.183680 -0.560488 153 0 76
-0.259200 -0.417560 -0.175130 76 0 153
-0.010771 0.045048 0.114334 0 127 127
0.000493 0.597190 0.407124 0 255 0
-0.104439 0.226522 0.025000 76 0 153
0.096621 -0.301715 0.533271 0 127 127
-0.020908 0.596361 0.482009 0 255 0
-0.192336 -0.154957 0.335487 0 127 127
0.048866 -0.063840 0.748996 76 153 0
0.127247 -0.252922 0.871016 76 153 0
-0.237295 -0.492480 -0.329731 76 0 153
0.050368 0.538424 0.127019 0 255 0
0.007136 0.653979 -0.226408 0 255 0
-0.230218 -0.681818 -0.346682 76 0 153
-0.116411 -0.107973 0.754972 76 153 0
-0.210156 0.269218 -0.075200 0 255 0
-0.032522 -0.408400 0.088910 0 127 127
0.218132 0.473434 -0.357865 0 255 0
0.082615 -0.022188 -0.452691 76 0 153
-0.266477 -0.000487 -0.202803 76 0 153
-0.073148 0.004423 0.417552 0 127 127
0.252528 -0.610015 -0.186672 76 0 153
-0.181038 -0.154763 0.671654 0 127 127
0.141906 0.449587 0.011644 0 255 0
-0.008719 -0.246407 0.935389 153 0 76
-0.244948 -0.384611 -0.301301 76 0 153
0.184450 -0.094939 0.641284 0 127 127
-0.035391 -0.313788 0.923508 153 0 76
-0.053080 -0.326490 0.456117 0 127 127
0.015581 -0.286288 0.624865 76 153 0
0.089262 0.141487 0.026537 76 0 153
-0.175547 0.033295 -0.402231 76 0 153
-0.066961 0.648478 -0.000916 0 255 0
-0.029232 -0.435579 -0.433971 153 0 76
-0.005155 -0.298715 0.671448 76 153 0
-0.021667 0.530331 0.434256 0 255 0
-0.064191 0.652725 -0.180452 0 255 0
0.166606 -0.293712 0.002759 0 127 127
0.198021 -0.108747 -0.037412 0 127 127
0.252869 -0.016879 -0.188672 76 0 153
-0.174493 -0.049002 -0.403184 76 0 153
0.135384 -0.181580 0.852056 76 153 0
-0.195284 -0.088564 0.465251 0 127 127
-0.202097 -0.080283 -0.375542 76 0 153
-0.076411 0.544633 0.191993 0 255 0
0.226617 -0.703959 -0.089853 76 0 153
0.187749 -0.085964 0.052044 0 127 127
0.179243 -0.171545 0.626677 0 127 127
-0.235753 -0.654161 -0.087335 76 0 153
-0.158667 0.543575 0.002982 0 255 0
0.226458 0.454425 -0.073232 0 255 0
0.049803 0.385770 0.043375 0 255 0
0.251838 0.380747 -0.161105 0 255 0
-0.074276 -0.472681 0.033939 76 0 153
0.023462 0.651608 -0.063071 0 255 0
0.232130 -0.024276 -0.111261 76 0 153
-0.186619 -0.051596 0.068057 0 127 127
-0.259298 0.393183 -0.151746 0 255 0
-0.230859 -0.224365 -0.346603 76 0 153
-0.195850 -0.095350 0.282624 0 127 127
0.121329 0.649982 -0.101069 0 255 0
0.005868 -0.132560 -0.633847 153 0 76
-0.192108 0.383763 -0.285719 0 255 0
-0.125040 -0.141907 0.866319 76 153 0
0.073978 0.581315 0.766032 0 255 0
0.182309 -0.170680 0.116749 0 127 127
-0.078921 -0.064808 0.804859 76 153 0
-0.069408 0.587209 0.220376 0 255 0
0.152558 0.159989 -0.009071 76 0 153
0.129889 -0.278355 0.341323 0 127 127
0.094506 0.594118 -0.455797 0 255 0
-0.045653 0.367670 -0.468550 0 255 0
-0.102047 0.571292 0.520612 0 255 0
0.208891 0.564975 -0.057418 0 255 0
-0.073100 0.542957 0.433806 0 255 0
-0.246424 -0.650560 -0.127164 76 0 153
-0.011010 0.529312 0.685344 0 255 0
0.109314 0.352695 -0.022146 0 255 0
0.124984 -0.227991 0.738509 76 153 0
0.221924 0.326318 -0.066960 0 255 0
0.182884 0.159288 -0.039396 76 0 153
0.121154 -0.189104 0.724591 76 153 0
-0.190567 0.322406 -0.025567 0 255 0
0.043258 0.007893 0.213556 0 127 127
0.232984 0.389489 -0.333486 0 255 0
-0.255578 0.172175 -0.162336 76 0 153
0.123783 -0.009893 0.091401 0 127 127
0.206580 -0.479362 -0.062310 76 0 153
0.088142 -0.148884 0.952585 153 0 76
0.043379 0.350433 -0.427384 0 255 0
-0.045652 -0.101630 -0.547495 153 0 76
0.065313 0.650589 -0.067112 0 255 0
0.012965 0.228270 0.046875 76 0 153
0.045340 0.647910 -0.447708 0 255 0
0.080220 0.648602 -0.011500 0 255 0
-0.119697 0.496389 0.027304 0 255 0
-0.249920 0.154062 -0.283406 76 0 153
-0.078918 -0.089834 0.882057 76 153 0
-0.004267 -0.334140 0.401862 0 127 127
-0.071004 0.541879 0.372506 0 255 0
-0.112574 -0.007284 0.647420 0 127 127
0.021579 -0.347927 -0.492094 153 0 76
0.064029 0.585386 0.372968 0 255 0
-0.162763 -0.252478 0.090192 0 127 127
-0.207243 -0.250591 -0.370187 76 0 153
-0.149331 0.470354 -0.437340 0 255 0
0.045024 0.008105 0.667710 0 127 127
-0.074066 0.543431 0.115152 0 255 0
-0.170117 -0.231373 0.561529 0 127 127
0.079369 -0.482175 -0.452997 76 0 153
-0.252917 -0.694220 -0.271182 76 0 153
-0.238880 0.121302 -0.324568 76 0 153
-0.267050 0.432382 -0.241602 0 255 0
0.081243 -0.329007 0.119068 0 127 127
0.160991 -0.235940 0.280144 0 127 127
0.013297 -0.090035 0.962792 153 0 76
-0.148546 0.023924 0.022492 0 127 127
-0.147742 -0.162003 0.805954 76 153 0
-0.249795 0.402361 -0.114188 0 255 0
-0.010630 0.529276 0.568684 0 255 0
-0.029169 -0.356472 -0.490507 153 0 76
-0.045238 0.008881 0.373301 0 127 127
-0.074950 0.003636 0.552582 0 127 127
0.155334 -0.243554 0.520771 0 127 127
0.246173 -0.398062 -0.163214 76 0 153
0.032703 0.192074 0.041630 76 0 153
0.142481 0.124669 -0.425582 76 0 153
0.020577 -0.041877 0.782948 76 153 0
0.239280 0.062861 -0.138054 76 0 153
0.090039 -0.290835 0.736399 76 153 0
-0.155315 0.649965 -0.268476 0 255 0
0.147452 -0.609545 -0.003022 76 0 153
-0.058873 0.090613 0.060433 0 127 127
-0.264073 0.217722 -0.194095 76 0 153
0.235396 -0.507159 -0.122859 76 0 153
-0.064317 0.539614 0.570606 0 255 0
0.154475 0.292229 0.000389 0 255 0
-0.245535 -0.550229 -0.298909 76 0 153
0.014404 -0.157144 0.046961 76 0 153
-0.009395 0.343000 0.056029 0 255 0
-0.062926 0.649094 -0.403728 0 255 0
-0.142441 0.329423 0.022758 0 255 0
0.240499 0.572124 -0.121142 0 255 0
-0.070025 0.638873 -0.464285 0 255 0
-0.096373 -0.312585 0.261611 0 127 127
-0.171046 0.649720 -0.197074 0 255 0
0.153698 -0.032323 0.520169 0 127 127
0.105906 0.453455 -0.452355 0 255 0
-0.261558 0.315641 -0.262550 0 255 0
0.186910 -0.103016 0.123893 0 127 127
0.169903 -0.218210 0.201744 0 127 127
0.227740 -0.575710 -0.328612 76 0 153
0.227952 -0.138819 -0.328356 76 0 153
0.019397 -0.281489 -0.562393 153 0 76
0.128173 0.518816 -0.446543 0 255 0
-0.195469 0.279176 -0.362540 0 255 0
0.185753 -0.089931 0.428427 0 127 127
-0.087669 -0.162341 0.950212 153 0 76
-0.028159 0.567968 0.819714 0 255 0
-0.092463 -0.001422 0.449606 0 127 127
-0.195873 -0.103773 0.197467 0 127 127
0.233042 -0.377538 -0.114234 76 0 153
-0.245473 0.540594 -0.101986 0 255 0
0.240447 0.280788 -0.223222 0 255 0
-0.051993 -0.212239 -0.504991 153 0 76
0.186585 -0.103719 0.180514 0 127 127
-0.013075 -0.087224 -0.534339 153 0 76
0.078007 -0.316929 0.195222 0 127 127
0.107789 -0.601096 -0.445237 76 0 153
-0.085866 -0.238416 -0.454188 76 0 153
0.022205 -0.325568 0.743513 76 153 0
-0.223643 -0.602843 -0.353354 76 0 153
0.105328 0.312571 0.030135 0 255 0
0.176875 -0.394908 -0.390551 76 0 153
0.119095 0.389162 -0.054939 0 255 0
-0.130583 0.310089 -0.009357 0 255 0
0.246230 0.199937 -0.164160 76 0 153
-0.180843 0.220356 -0.397164 76 0 153
-0.000310 0.157083 0.050519 76 0 153
0.114209 0.015902 0.062880 0 127 127
0.092732 -0.369535 0.026234 76 0 153
-0.227839 0.411680 -0.064010 0 255 0
-0.082827 0.301575 0.012085 0 255 0
-0.260359 -0.369275 -0.243806 76 0 153
-0.255347 -0.603937 -0.160523 76 0 153
-0.011597 -0.336446 0.324626 0 127 127
-0.159916 -0.030449 0.476733 0 127 127
0.101994 -0.233578 -0.447240 76 0 153
-0.018043 0.011700 0.268114 0 127 127
-0.183433 -0.200427 0.619543 0 127 127
-0.192428 0.342801 -0.331775 0 255 0
-0.177640 -0.741868 -0.023221 76 0 153
0.138647 0.201134 0.004789 76 0 153
0.062021 0.542329 0.692133 0 255 0
0.161684 -0.228684 0.588327 0 127 127
-0.031430 -0.099387 -0.468945 76 0 153
-0.120387 -0.199516 -0.444986 76 0 153
-0.195352 -0.127457 0.070304 0 127 127
-0.104989 0.651139 -0.116746 0 255 0
-0.173922 -0.038709 0.192829 0 127 127
0.180560 0.374945 -0.123750 0 255 0
0.000716 0.597173 0.718129 0 255 0
0.047521 0.271116 0.024517 0 255 0
-0.113802 -0.007870 0.509995 0 127 127
0.233113 -0.582423 -0.114247 76 0 153
-0.193749 -0.125428 0.492862 0 127 127
-0.169894 0.133115 -0.016546 76 0 153
-0.035979 0.531704 0.246402 0 255 0
0.061175 -0.526138 0.034881 76 0 153
-0.159887 -0.526924 -0.417205 76 0 153
-0.242030 -0.215936 -0.111299 76 0 153
-0.073848 -0.319609 0.422913 0 127 127
-0.004144 0.041405 0.051688 76 0 153
-0.058727 -0.011160 0.037539 76 0 153
0.162773 0.193087 -0.405373 76 0 153
-0.249138 0.639022 -0.118751 0 255 0
0.063288 0.004817 0.284880 0 127 127
-0.168898 0.384122 -0.004453 0 255 0
0.081076 -0.079301 0.693683 76 153 0
-0.145147 -0.471473 -0.432013 76 0 153
0.120624 -0.266180 0.804332 76 153 0
-0.098440 0.060775 0.026810 76 0 153
-0.049734 0.033132 0.039895 76 0 153
-0.254301 -0.439353 -0.266330 76 0 153
0.144185 0.647967 -0.382096 0 255 0
-0.242293 -0.235982 -0.311392 76 0 153
0.007570 -0.512300 -0.472199 76 0 153
0.053369 -0.349506 0.036756 76 0 153
0.213773 -0.040819 -0.070040 76 0 153
-0.112708 -0.270741 0.931098 153 0 76
0.110542 -0.126499 0.898756 76 153 0
-0.062671 0.651630 -0.327666 0 255 0
-0.072340 0.550305 0.812632 0 255 0
0.054510 0.317105 0.012573 0 255 0
-0.078690 0.544935 0.076427 0 255 0
0.231058 0.633788 -0.086422 0 255 0
-0.135469 0.348441 -0.388266 0 255 0
0.234923 0.181565 -0.302735 76 0 153
0.007332 0.309631 -0.452574 0 255 0
-0.190224 -0.187298 0.113981 0 127 127
0.085678 0.576545 0.560216 0 255 0
-0.012245 0.410631 0.062278 0 255 0
0.029922 0.373163 -0.472956 0 255 0
0.122447 -0.122994 0.817225 76 153 0
-0.268866 -0.738119 -0.210814 76 0 153
0.149781 0.056408 -0.418198 76 0 153
0.006582 -0.045904 0.705503 76 153 0
0.117559 -0.112560 -0.443217 76 0 153
-0.186120 -0.193848 0.501948 0 127 127
-0.068891 -0.693243 0.035652 76 0 153
-0.252161 0.567938 -0.297028 0 255 0
-0.185800 -0.031255 -0.004260 0 127 127
-0.037977 0.009522 0.491104 0 127 127
-0.218423 -0.497585 -0.064303 76 0 153
-0.030415 0.466420 -0.475536 0 255 0
-0.274383 0.606625 -0.213899 0 255 0
0.099049 -0.250372 0.721617 76 153 0
-0.096749 -0.082495 0.677911 76 153 0
0.184682 0.649155 -0.203033 0 255 0
0.017088 0.530827 0.750141 0 255 0
-0.176009 -0.742046 -0.400819 76 0 153
-0.195101 -0.158475 -0.002017 0 127 127
0.240428 -0.010498 -0.281952 76 0 153
0.053623 -0.196057 -0.548847 153 0 76
0.256289 0.470583 -0.245001 0 255 0
0.042206 -0.471830 0.039897 76 0 153
-0.203943 -0.053055 -0.033024 0 127 127
0.137693 -0.266971 0.431437 0 127 127
-0.132546 0.075128 -0.442065 76 0 153
-0.031415 0.317635 0.021396 0 255 0
0.162425 -0.037585 0.402230 0 127 127
0.050457 -0.131604 -0.461174 76 0 153
0.041004 0.520740 0.059897 0 255 0
-0.041111 0.440759 0.047859 0 255 0
0.259403 0.342392 -0.190680 0 255 0
-0.002336 0.597412 0.654462 0 255 0
-0.071521 -0.004058 0.696939 0 127 127
-0.080721 0.582575 0.772870 0 255 0
-0.154209 -0.258943 0.394112 0 127 127
0.125590 0.246484 -0.441505 76 0 153
0.137707 0.647932 -0.033217 0 255 0
0.194067 0.325405 -0.329773 0 255 0
-0.224241 0.297510 -0.299001 0 255 0
-0.003916 0.530514 0.813632 0 255 0
-0.166747 0.648163 -0.075682 0 255 0
-0.257367 -0.509871 -0.254801 76 0 153
0.079802 -0.434650 0.029778 76 0 153
-0.232574 0.052035 -0.079128 76 0 153
0.092784 0.570028 0.328340 0 255 0
0.021524 0.595543 0.372920 0 255 0
0.074603 0.581062 0.649206 0 255 0
-0.242609 0.304850 -0.206765 0 255 0
-0.015500 -0.743872 0.050020 76 0 153
-0.002364 0.528974 0.188469 0 255 0
0.199052 -0.720000 -0.367975 76 0 153
0.148799 -0.165627 -0.418908 76 0 153
-0.030343 0.631144 -0.475651 0 255 0
0.099826 -0.051446 0.023943 76 0 153
0.184573 -0.328278 -0.382935 76 0 153
-0.103885 -0.416970 0.025937 76 0 153
0.130255 -0.281284 0.098121 0 127 127
-0.218688 -0.422631 -0.358530 76 0 153
0.050625 0.229013 -0.461571 76 0 153
0.058888 0.540914 0.368836 0 255 0
0.187973 -0.129102 -0.004968 0 127 127
0.223610 0.033483 -0.344340 76 0 153
-0.181286 -0.046539 0.661072 0 127 127
-0.125553 -0.109199 0.802430 76 153 0
-0.054532 -0.059997 0.727187 76 153 0
-0.193954 -0.284935 -0.026972 0 127 127
-0.083227 0.581564 0.136347 0 255 0
-0.068132 0.540736 0.498803 0 255 0
0.165365 -0.262130 -0.021360 76 0 153
0.051469 -0.138888 0.037007 76 0 153
0.253974 0.229518 -0.193097 76 0 153
-0.191809 -0.156591 0.434319 0 127 127
-0.105113 -0.434129 -0.448791 76 0 153
-0.080486 0.582671 0.710342 0 255 0
0.082325 0.621243 0.033819 0 255 0
0.207569 0.341022 -0.368330 0 255 0
0.252769 0.211252 -0.236165 76 0 153
-0.180037 -0.253820 0.013739 0 127 127
-0.138530 -0.195249 0.862614 76 153 0
0.240009 0.536031 -0.118443 0 255 0
-0.020229 0.596414 0.589104 0 255 0
0.098830 -0.089010 0.813152 76 153 0
-0.091452 0.578203 0.171842 0 255 0
-0.244961 -0.289123 -0.122149 76 0 153
-0.029141 -0.528992 -0.391309 153 0 76
-0.100333 0.376450 -0.024459 0 255 0
0.110254 -0.224738 0.664160 76 153 0
0.040568 -0.068799 -0.565463 153 0 76
0.160739 -0.470072 -0.016480 76 0 153
0.159013 -0.633855 -0.408120 76 0 153
-0.257758 0.437977 -0.276689 0 255 0
0.040222 -0.402713 -0.463584 76 0 153
0.068727 0.002589 0.632260 0 127 127
-0.243564 -0.148208 -0.117107 76 0 153
0.261150 0.352597 -0.226820 0 255 0
-0.020562 -0.654472 0.048554 76 0 153
0.219263 -0.162230 -0.075381 76 0 153
0.103495 0.377789 -0.452882 0 255 0
-0.190361 -0.187710 0.078051 0 127 127
0.006830 -0.019351 0.048822 76 0 153
-0.265909 -0.636218 -0.222766 76 0 153
0.217486 -0.346012 -0.073380 76 0 153
-0.136879 -0.255364 0.819581 76 153 0
0.080394 -0.539815 -0.452652 76 0 153
-0.093560 -0.241484 0.028488 76 0 153
-0.028670 0.075341 0.078702 0 127 127
0.168873 -0.324514 -0.024793 76 0 153
0.256435 -0.742664 -0.221316 76 0 153
0.050382 -0.266220 0.037455 76 0 153
0.053298 -0.327125 0.164998 0 127 127
0.259078 -0.393383 -0.211384 76 0 153
0.164466 0.336405 -0.009284 0 255 0
0.253385 -0.142307 -0.190444 76 0 153
-0.193821 -0.545792 -0.039641 76 0 153
-0.222107 0.223383 -0.068871 76 0 153
-0.117969 -0.173049 0.021864 76 0 153
0.220499 -0.210039 -0.347153 76 0 153
0.090654 0.401816 0.033154 0 255 0
-0.247346 0.373546 -0.316334 0 255 0
0.039764 -0.057296 -0.464130 76 0 153
0.116949 -0.013504 0.669931 0 127 127
0.185114 -0.114039 0.390024 0 127 127
0.250278 -0.210174 -0.178765 76 0 153
0.131292 -0.045729 -0.436562 76 0 153
0.028008 0.009569 0.422355 0 127 127
-0.071810 -0.314904 -0.457861 76 0 153
-0.210178 0.648517 -0.170517 0 255 0
-0.011412 0.653078 -0.102522 0 255 0
0.203205 -0.086997 -0.364597 76 0 153
0.092691 -0.281478 -0.449673 76 0 153
0.067720 0.110181 0.032348 76 0 153
-0.145723 -0.100864 -0.431890 76 0 153
0.071713 0.059244 0.066329 0 127 127
-0.253292 -0.693070 -0.152745 76 0 153
-0.099500 -0.058567 -0.450756 76 0 153
0.253910 0.173041 -0.231860 76 0 153
0.153280 -0.140882 -0.009424 76 0 153
0.262010 0.515990 -0.223482 0 255 0
-0.084465 0.008683 0.127173 0 127 127
-0.127163 -0.286162 0.462920 0 127 127
0.025303 0.009924 0.345528 0 127 127
-0.021211 -0.330259 0.564385 0 127 127
-0.155206 -0.028004 0.121527 0 127 127
0.185409 -0.152459 0.081437 0 127 127
0.058346 0.567837 -0.465491 0 255 0
0.239453 0.334150 -0.309110 0 255 0
-0.020034 -0.480387 -0.442876 153 0 76
0.200298 -0.172412 -0.367400 76 0 153
0.040543 -0.586903 -0.463272 76 0 153
0.260426 0.417652 -0.195373 0 255 0
-0.132961 -0.016110 0.250526 0 127 127
-0.160741 -0.259931 -0.416678 76 0 153
0.200574 0.012361 -0.056906 76 0 153
-0.040082 0.595023 0.083244 0 255 0
-0.246126 0.493564 -0.320180 0 255 0
0.184900 -0.130441 0.322491 0 127 127
-0.018553 -0.135589 0.048457 76 0 153
0.194557 0.615147 -0.381766 0 255 0
0.223515 -0.095015 -0.079716 76 0 153
0.238938 -0.081456 -0.287426 76 0 153
0.024845 0.409382 0.062196 0 255 0
-0.164103 -0.393307 -0.010110 76 0 153
0.222287 0.647492 -0.333515 0 255 0
0.255514 -0.509802 -0.197939 76 0 153
-0.185659 -0.194525 0.545875 0 127 127
-0.232693 -0.354084 -0.078749 76 0 153
0.024511 -0.709435 -0.467418 76 0 153
-0.195949 -0.075824 0.123668 0 127 127
0.000281 0.012221 0.524274 0 127 127
0.057534 0.380625 -0.017574 0 255 0
0.154420 -0.230565 -0.413207 76 0 153
0.157924 0.022436 -0.014269 76 0 153
-0.011936 0.020399 0.149180 0 127 127
0.229462 0.073631 -0.101424 76 0 153
-0.177868 -0.224661 0.133684 0 127 127
-0.170850 0.224378 -0.017614 76 0 153
0.077899 0.298790 -0.436109 0 255 0
0.174177 -0.048086 0.128606 0 127 127
-0.240920 -0.022282 -0.316778 76 0 153
0.230836 -0.286216 -0.106112 76 0 153
0.184360 0.426175 -0.392017 0 255 0
-0.236595 -0.428532 -0.090756 76 0 153
0.230400 -0.216636 -0.104569 76 0 153
0.238460 -0.247216 -0.134611 76 0 153
-0.015288 0.549965 0.054371 0 255 0
-0.169348 -0.242487 0.212542 0 127 127
0.231218 -0.680750 -0.315501 76 0 153
0.093399 -0.647694 0.026396 76 0 153
0.108951 -0.455280 0.021993 76 0 153
0.208756 0.303925 -0.113412 0 255 0
-0.184577 0.276635 -0.050754 0 255 0
0.143737 0.410389 -0.433223 0 255 0
-0.164199 -0.032596 0.620814 0 127 127
-0.105396 0.649351 -0.042085 0 255 0
0.048941 -0.290383 0.705186 76 153 0
-0.053893 0.536559 0.628135 0 255 0
-0.124556 0.650645 -0.165353 0 255 0
-0.070360 0.571078 0.039711 0 255 0
-0.149140 -0.030312 0.004408 76 0 153
-0.124937 -0.222222 0.939653 153 0 76
-0.079952 0.582893 0.547596 0 255 0
-0.185114 -0.201626 -0.392376 76 0 153
-0.182313 0.352154 -0.404026 0 255 0
0.065662 -0.275855 0.663157 76 153 0
0.071900 0.582175 0.221991 0 255 0
-0.256903 0.509121 -0.144868 0 255 0
0.136032 -0.039367 0.007699 76 0 153
-0.028508 -0.307704 -0.512273 153 0 76
-0.234707 -0.025293 -0.084202 76 0 153
0.243228 -0.282847 -0.271169 76 0 153
0.057919 0.582240 0.812670 0 255 0
0.136937 -0.110710 0.006882 76 0 153
-0.081672 -0.079749 0.754000 76 153 0
-0.250060 0.465281 -0.117074 0 255 0
0.255553 -0.426243 -0.224996 76 0 153
0.058716 0.652711 -0.186837 0 255 0
0.128203 0.574804 -0.446720 0 255 0
-0.265779 -0.101161 -0.223908 76 0 153
0.138607 0.087502 -0.429410 76 0 153
-0.003302 0.605276 0.056703 0 255 0
0.025984 -0.243608 0.935882 153 0 76
0.161576 -0.232737 0.379995 0 127 127
-0.090260 -0.553663 0.029755 76 0 153
0.117715 0.359167 0.026854 0 255 0
0.212280 -0.445209 -0.355084 76 0 153
0.081658 0.578189 0.099372 0 255 0
0.065231 0.648580 -0.418680 0 255 0
-0.154322 0.558258 -0.431957 0 255 0
-0.209591 0.107527 -0.368277 76 0 153
-0.086001 -0.312238 0.578147 0 127 127
-0.146056 -0.351593 0.026643 0 127 127
0.147493 -0.012752 -0.420401 76 0 153
-0.197081 -0.082646 0.007200 0 127 127
0.139837 0.349661 -0.372515 0 255 0
0.159935 0.363406 -0.416804 0 255 0
0.109220 -0.117498 0.749803 76 153 0
-0.065455 0.255411 0.023827 0 255 0
0.181767 -0.157340 0.595067 0 127 127
0.076494 0.549714 0.483712 0 255 0
-0.216483 -0.090653 -0.062862 76 0 153
-0.262074 -0.260985 -0.237537 76 0 153
-0.219456 0.445312 -0.366359 0 255 0
-0.011928 0.529400 0.344882 0 255 0
-0.126810 -0.351378 -0.443079 76 0 153
-0.248625 0.347988 -0.108043 0 255 0
0.012006 0.190796 -0.471872 76 0 153
-0.204187 -0.614406 -0.049924 76 0 153
-0.244939 0.319505 -0.316346 0 255 0
0.023617 0.124003 0.044148 76 0 153
0.125640 0.558025 0.022598 0 255 0
-0.100318 0.464601 -0.456553 0 255 0
0.166693 -0.559133 -0.400532 76 0 153
0.234821 -0.249927 -0.302586 76 0 153
0.150920 0.649925 -0.173438 0 255 0
0.257936 0.068222 -0.207688 76 0 153
-0.031471 -0.333956 0.223515 0 127 127
-0.055672 0.651419 -0.074212 0 255 0
-0.067444 0.397407 -0.465418 0 255 0
-0.095178 -0.509768 -0.451361 76 0 153
0.007895 0.596610 0.461346 0 255 0
0.258738 -0.577049 -0.209891 76 0 153
0.192263 0.494747 -0.383983 0 255 0
-0.189895 -0.186030 0.185415 0 127 127
-0.273178 0.571155 -0.218417 0 255 0
-0.046648 -0.172964 -0.594465 153 0 76
-0.062560 -0.056556 0.693934 76 153 0
-0.084507 -0.624541 0.031384 76 0 153
0.033570 0.533482 0.181313 0 255 0
-0.017414 0.596635 0.181140 0 255 0
0.170254 -0.219433 0.095991 0 127 127
-0.185027 -0.051443 0.570967 0 127 127
0.008024 0.360551 0.007384 0 255 0
0.079712 0.105941 -0.453626 76 0 153
0.034725 0.533823 0.319604 0 255 0
-0.196224 -0.212438 -0.042453 76 0 153
-0.138060 -0.704681 -0.438814 76 0 153
0.200086 0.648306 -0.133233 0 255 0
-0.140263 -0.648602 -0.436679 76 0 153
-0.102673 0.124839 0.025598 76 0 153
0.211512 0.525517 -0.059502 0 255 0
-0.189869 -0.166069 0.600753 0 127 127
-0.214460 -0.250989 -0.060642 76 0 153
-0.101625 0.559275 0.240042 0 255 0
-0.026586 -0.343202 0.886497 76 153 0
0.233870 0.486994 -0.093369 0 255 0
-0.148685 -0.024649 0.549741 0 127 127
0.117652 -0.288025 0.405446 0 127 127
-0.196796 0.202721 -0.043534 76 0 153
-0.265126 0.200000 -0.226711 76 0 153
-0.248178 0.269299 -0.239258 0 255 0
-0.077731 0.350086 0.039198 0 255 0
0.169178 -0.043796 0.589423 0 127 127
-0.145704 -0.223407 0.768551 76 153 0
0.228380 0.064880 -0.327012 76 0 153
0.178120 -0.591675 -0.033713 76 0 153
-0.062165 0.079351 -0.460928 76 0 153
0.160401 -0.035993 0.332168 0 127 127
-0.260426 0.052871 -0.180283 76 0 153
0.048290 0.539397 0.809650 0 255 0
-0.263968 -0.177082 -0.230573 76 0 153
0.187662 -0.688458 -0.043136 76 0 153
-0.167983 0.310798 -0.002800 0 255 0
0.127202 -0.489619 -0.440107 76 0 153
-0.253622 0.045695 -0.269459 76 0 153
0.020305 0.595639 0.124343 0 255 0
0.058345 0.540738 0.527010 0 255 0
0.090363 -0.251050 0.672658 76 153 0
-0.264750 -0.399363 -0.227383 76 0 153
-0.106623 -0.300915 0.636681 0 127 127
0.063803 0.004501 0.362177 0 127 127
-0.183630 -0.452819 -0.393552 76 0 153
-0.030223 0.387920 -0.012245 0 255 0
0.155612 0.325194 -0.053408 0 255 0
-0.052004 -0.142354 -0.536143 153 0 76
0.177363 -0.194910 0.239500 0 127 127
-0.248359 -0.208932 -0.288787 76 0 153
